144

  2.46000   4.26084   3.35500
  2.46000   4.26084   6.71000
  3.69000   4.97099   3.35500
  3.69000   6.39127   3.35500
  3.69000   6.39127  6.71000
  2.46000   5.68113   6.71000
  3.69000   7.81155   6.71000
  2.46000   7.10141   3.35500
  2.46000   8.52169   3.35500
  2.46000   8.52169   6.71000
  3.69000   9.23183   3.35500
  3.69000   10.65211   3.35500
  3.69000   10.65211  6.71000
  2.46000   9.94197   6.71000
  3.69000   12.07239   6.71000
  2.46000   11.36225   3.35500
  4.92000   4.26084   3.35500
  4.92000   4.26084   6.71000
  6.15000   4.97099   3.35500
  6.15000   6.39127   3.35500
  6.15000   6.39127  6.71000
  4.92000   5.68113   6.71000
  6.15000   7.81155   6.71000
  4.92000   7.10141   3.35500
  4.92000   8.52169   3.35500
  4.92000   8.52169   6.71000
  6.15000   9.23183   3.35500
  6.15000   10.65211   3.35500
  6.15000   10.65211  6.71000
  4.92000   9.94197   6.71000
  6.15000   12.07239   6.71000
  4.92000   11.36225   3.35500
  7.38000   4.26084   3.35500
  7.38000   4.26084   6.71000
  8.61000   4.97099   3.35500
  8.61000   6.39127   3.35500
  8.61000   6.39127  6.71000
  7.38000   5.68113   6.71000
  8.61000   7.81155   6.71000
  7.38000   7.10141   3.35500
  7.38000   8.52169   3.35500
  7.38000   8.52169   6.71000
  8.61000   9.23183   3.35500
  8.61000   10.65211   3.35500
  8.61000   10.65211  6.71000
  7.38000   9.94197   6.71000
  8.61000   12.07239   6.71000
  7.38000   11.36225   3.35500
  2.46000   4.26084   10.06500
  2.46000   4.26084   13.42000
  3.69000   4.97099   10.06500
  3.69000   6.39127   10.06500
  3.69000   6.39127  13.42000
  2.46000   5.68113   13.42000
  3.69000   7.81155   13.42000
  2.46000   7.10141   10.06500
  2.46000   8.52169   10.06500
  2.46000   8.52169   13.42000
  3.69000   9.23183   10.06500
  3.69000   10.65211   10.06500
  3.69000   10.65211  13.42000
  2.46000   9.94197   13.42000
  3.69000   12.07239   13.42000
  2.46000   11.36225   10.06500
  4.92000   4.26084   10.06500
  4.92000   4.26084   13.42000
  6.15000   4.97099   10.06500
  6.15000   6.39127   10.06500
  6.15000   6.39127  13.42000
  4.92000   5.68113   13.42000
  6.15000   7.81155   13.42000
  4.92000   7.10141   10.06500
  4.92000   8.52169   10.06500
  4.92000   8.52169   13.42000
  6.15000   9.23183   10.06500
  6.15000   10.65211   10.06500
  6.15000   10.65211  13.42000
  4.92000   9.94197   13.42000
  6.15000   12.07239   13.42000
  4.92000   11.36225   10.06500
  7.38000   4.26084   10.06500
  7.38000   4.26084   13.42000
  8.61000   4.97099   10.06500
  8.61000   6.39127   10.06500
  8.61000   6.39127  13.42000
  7.38000   5.68113   13.42000
  8.61000   7.81155   13.42000
  7.38000   7.10141   10.06500
  7.38000   8.52169   10.06500
  7.38000   8.52169   13.42000
  8.61000   9.23183   10.06500
  8.61000   10.65211   10.06500
  8.61000   10.65211  13.42000
  7.38000   9.94197   13.42000
  8.61000   12.07239   13.42000
  7.38000   11.36225   10.06500
  2.46000   4.26084   16.77500
  2.46000   4.26084   20.13000
  3.69000   4.97099   16.77500
  3.69000   6.39127   16.77500
  3.69000   6.39127  20.13000
  2.46000   5.68113   20.13000
  3.69000   7.81155   20.13000
  2.46000   7.10141   16.77500
  2.46000   8.52169   16.77500
  2.46000   8.52169   20.13000
  3.69000   9.23183   16.77500
  3.69000   10.65211   16.77500
  3.69000   10.65211  20.13000
  2.46000   9.94197   20.13000
  3.69000   12.07239   20.13000
  2.46000   11.36225   16.77500
  4.92000   4.26084   16.77500
  4.92000   4.26084   20.13000
  6.15000   4.97099   16.77500
  6.15000   6.39127   16.77500
  6.15000   6.39127  20.13000
  4.92000   5.68113   20.13000
  6.15000   7.81155   20.13000
  4.92000   7.10141   16.77500
  4.92000   8.52169   16.77500
  4.92000   8.52169   20.13000
  6.15000   9.23183   16.77500
  6.15000   10.65211   16.77500
  6.15000   10.65211  20.13000
  4.92000   9.94197   20.13000
  6.15000   12.07239   20.13000
  4.92000   11.36225   16.77500
  7.38000   4.26084   16.77500
  7.38000   4.26084   20.13000
  8.61000   4.97099   16.77500
  8.61000   6.39127   16.77500
  8.61000   6.39127  20.13000
  7.38000   5.68113   20.13000
  8.61000   7.81155   20.13000
  7.38000   7.10141   16.77500
  7.38000   8.52169   16.77500
  7.38000   8.52169   20.13000
  8.61000   9.23183   16.77500
  8.61000   10.65211   16.77500
  8.61000   10.65211  20.13000
  7.38000   9.94197   20.13000
  8.61000   12.07239   20.13000
  7.38000   11.36225   16.77500
