  2.44520   4.23521   3.34970
  2.44520   4.23521   6.69940
  3.66780   4.94108   3.34970
  3.66780   6.35282   3.34970
  3.66780   6.35282  6.69940
  2.44520   5.64695   6.69940
  3.66780   7.76455   6.69940
  2.44520   7.05868   3.34970
  2.44520   8.47042   3.34970
  2.44520   8.47042   6.69940
  3.66780   9.17629   3.34970
  3.66780   10.58803   3.34970
  3.66780   10.58803  6.69940
  2.44520   9.88216   6.69940
  3.66780   11.99976   6.69940
  2.44520   11.29390   3.34970
  4.89040   4.23521   3.34970
  4.89040   4.23521   6.69940
  6.11300   4.94108   3.34970
  6.11300   6.35282   3.34970
  6.11300   6.35282  6.69940
  4.89040   5.64695   6.69940
  6.11300   7.76455   6.69940
  4.89040   7.05868   3.34970
  4.89040   8.47042   3.34970
  4.89040   8.47042   6.69940
  6.11300   9.17629   3.34970
  6.11300   10.58803   3.34970
  6.11300   10.58803  6.69940
  4.89040   9.88216   6.69940
  6.11300   11.99976   6.69940
  4.89040   11.29390   3.34970
  7.33560   4.23521   3.34970
  7.33560   4.23521   6.69940
  8.55820   4.94108   3.34970
  8.55820   6.35282   3.34970
  8.55820   6.35282  6.69940
  7.33560   5.64695   6.69940
  8.55820   7.76455   6.69940
  7.33560   7.05868   3.34970
  7.33560   8.47042   3.34970
  7.33560   8.47042   6.69940
  8.55820   9.17629   3.34970
  8.55820   10.58803   3.34970
  8.55820   10.58803  6.69940
  7.33560   9.88216   6.69940
  8.55820   11.99976   6.69940
  7.33560   11.29390   3.34970
  2.44520   4.23521   10.04910
  2.44520   4.23521   13.39880
  3.66780   4.94108   10.04910
  3.66780   6.35282   10.04910
  3.66780   6.35282  13.39880
  2.44520   5.64695   13.39880
  3.66780   7.76455   13.39880
  2.44520   7.05868   10.04910
  2.44520   8.47042   10.04910
  2.44520   8.47042   13.39880
  3.66780   9.17629   10.04910
  3.66780   10.58803   10.04910
  3.66780   10.58803  13.39880
  2.44520   9.88216   13.39880
  3.66780   11.99976   13.39880
  2.44520   11.29390   10.04910
  4.89040   4.23521   10.04910
  4.89040   4.23521   13.39880
  6.11300   4.94108   10.04910
  6.11300   6.35282   10.04910
  6.11300   6.35282  13.39880
  4.89040   5.64695   13.39880
  6.11300   7.76455   13.39880
  4.89040   7.05868   10.04910
  4.89040   8.47042   10.04910
  4.89040   8.47042   13.39880
  6.11300   9.17629   10.04910
  6.11300   10.58803   10.04910
  6.11300   10.58803  13.39880
  4.89040   9.88216   13.39880
  6.11300   11.99976   13.39880
  4.89040   11.29390   10.04910
  7.33560   4.23521   10.04910
  7.33560   4.23521   13.39880
  8.55820   4.94108   10.04910
  8.55820   6.35282   10.04910
  8.55820   6.35282  13.39880
  7.33560   5.64695   13.39880
  8.55820   7.76455   13.39880
  7.33560   7.05868   10.04910
  7.33560   8.47042   10.04910
  7.33560   8.47042   13.39880
  8.55820   9.17629   10.04910
  8.55820   10.58803   10.04910
  8.55820   10.58803  13.39880
  7.33560   9.88216   13.39880
  8.55820   11.99976   13.39880
  7.33560   11.29390   10.04910
  2.44520   4.23521   16.74850
  2.44520   4.23521   20.09820
  3.66780   4.94108   16.74850
  3.66780   6.35282   16.74850
  3.66780   6.35282  20.09820
  2.44520   5.64695   20.09820
  3.66780   7.76455   20.09820
  2.44520   7.05868   16.74850
  2.44520   8.47042   16.74850
  2.44520   8.47042   20.09820
  3.66780   9.17629   16.74850
  3.66780   10.58803   16.74850
  3.66780   10.58803  20.09820
  2.44520   9.88216   20.09820
  3.66780   11.99976   20.09820
  2.44520   11.29390   16.74850
  4.89040   4.23521   16.74850
  4.89040   4.23521   20.09820
  6.11300   4.94108   16.74850
  6.11300   6.35282   16.74850
  6.11300   6.35282  20.09820
  4.89040   5.64695   20.09820
  6.11300   7.76455   20.09820
  4.89040   7.05868   16.74850
  4.89040   8.47042   16.74850
  4.89040   8.47042   20.09820
  6.11300   9.17629   16.74850
  6.11300   10.58803   16.74850
  6.11300   10.58803  20.09820
  4.89040   9.88216   20.09820
  6.11300   11.99976   20.09820
  4.89040   11.29390   16.74850
  7.33560   4.23521   16.74850
  7.33560   4.23521   20.09820
  8.55820   4.94108   16.74850
  8.55820   6.35282   16.74850
  8.55820   6.35282  20.09820
  7.33560   5.64695   20.09820
  8.55820   7.76455   20.09820
  7.33560   7.05868   16.74850
  7.33560   8.47042   16.74850
  7.33560   8.47042   20.09820
  8.55820   9.17629   16.74850
  8.55820   10.58803   16.74850
  8.55820   10.58803  20.09820
  7.33560   9.88216   20.09820
  8.55820   11.99976   20.09820
  7.33560   11.29390   16.74850
